# .PCD v0.7 - Point Cloud Data file format
VERSION 0.7
FIELDS x y z
SIZE 4 4 4
TYPE F F F
COUNT 1 1 1
WIDTH 1716
HEIGHT 1
VIEWPOINT 0 0 0 1 0 0 0
POINTS 1716
DATA ascii
6.0100002 -5.4899998 -1.14
6.0100002 -5.4899998 -1.04
6.0100002 -5.4899998 -0.94
6.0100002 -5.4899998 -0.83999997
6.0100002 -5.4899998 -0.74000001
6.0100002 -5.4899998 -0.63999999
6.0100002 -5.4899998 -0.54000002
6.0100002 -5.4899998 -0.44
6.0100002 -5.4899998 -0.34
6.0100002 -5.4899998 -0.23999999
6.0100002 -5.4899998 -0.14
6.0100002 -5.4899998 -0.039999999
6.0100002 -5.4899998 0.059999999
6.0100002 -5.4899998 0.16
6.0100002 -5.4899998 0.25999999
6.0100002 -5.4899998 0.36000001
6.0100002 -5.4899998 0.46000001
6.0100002 -5.4899998 0.56
6.0100002 -5.4899998 0.66000003
6.0100002 -5.4899998 0.75999999
6.0100002 -5.4899998 0.86000001
6.0100002 -5.4899998 0.95999998
6.0100002 -5.4899998 1.0599999
6.0100002 -5.4899998 1.16
6.0100002 -5.4899998 1.26
6.0100002 -5.4899998 1.36
6.0100002 -5.4899998 1.46
6.0100002 -5.4899998 1.5599999
6.0100002 -5.4899998 1.66
6.0100002 -5.4899998 1.76
6.0100002 -5.4899998 1.86
6.0100002 -5.4899998 1.96
6.0100002 -5.4899998 2.0599999
6.0100002 -5.4899998 2.1600001
6.0100002 -5.4899998 2.26
6.0100002 -5.3899999 -2.9400001
6.0100002 -5.3899999 -2.8399999
6.0100002 -5.3899999 -2.74
6.0100002 -5.3899999 -2.6400001
6.0100002 -5.3899999 -2.54
6.0100002 -5.3899999 -2.4400001
6.0100002 -5.3899999 -2.3399999
6.0100002 -5.3899999 -2.24
6.0100002 -5.3899999 -2.1400001
6.0100002 -5.3899999 -2.04
6.0100002 -5.3899999 -1.9400001
6.0100002 -5.3899999 -1.84
6.0100002 -5.3899999 -1.74
6.0100002 -5.3899999 -1.64
6.0100002 -5.3899999 -1.54
6.0100002 -5.3899999 -1.4400001
6.0100002 -5.3899999 -1.34
6.0100002 -5.3899999 -1.24
6.0100002 -5.3899999 -1.14
6.0100002 -5.3899999 -1.04
6.0100002 -5.3899999 -0.94
6.0100002 -5.3899999 -0.83999997
6.0100002 -5.3899999 -0.74000001
6.0100002 -5.3899999 -0.63999999
6.0100002 -5.3899999 -0.54000002
6.0100002 -5.3899999 -0.44
6.0100002 -5.3899999 -0.34
6.0100002 -5.3899999 -0.23999999
6.0100002 -5.3899999 -0.14
6.0100002 -5.3899999 -0.039999999
6.0100002 -5.3899999 0.059999999
6.0100002 -5.3899999 0.16
6.0100002 -5.3899999 0.25999999
6.0100002 -5.3899999 0.36000001
6.0100002 -5.3899999 0.46000001
6.0100002 -5.3899999 0.56
6.0100002 -5.3899999 0.66000003
6.0100002 -5.3899999 0.75999999
6.0100002 -5.3899999 0.86000001
6.0100002 -5.3899999 0.95999998
6.0100002 -5.3899999 1.0599999
6.0100002 -5.3899999 1.16
6.0100002 -5.3899999 1.26
6.0100002 -5.3899999 1.36
6.0100002 -5.3899999 1.46
6.0100002 -5.3899999 1.5599999
6.0100002 -5.3899999 1.66
6.0100002 -5.3899999 1.76
6.0100002 -5.3899999 1.86
6.0100002 -5.3899999 1.96
6.0100002 -5.3899999 2.0599999
6.0100002 -5.3899999 2.1600001
6.0100002 -5.29 -2.9400001
6.0100002 -5.29 -2.8399999
6.0100002 -5.29 -2.74
6.0100002 -5.29 -2.6400001
6.0100002 -5.29 -2.54
6.0100002 -5.29 -2.4400001
6.0100002 -5.29 -2.3399999
6.0100002 -5.29 -2.24
6.0100002 -5.29 -2.1400001
6.0100002 -5.29 -2.04
6.0100002 -5.29 -1.9400001
6.0100002 -5.29 -1.84
6.0100002 -5.29 -1.74
6.0100002 -5.29 -1.64
6.0100002 -5.29 -1.54
6.0100002 -5.29 -1.4400001
6.0100002 -5.29 -1.34
6.0100002 -5.29 -1.24
6.0100002 -5.29 -1.14
6.0100002 -5.29 -1.04
6.0100002 -5.29 -0.94
6.0100002 -5.29 -0.83999997
6.0100002 -5.29 -0.74000001
6.0100002 -5.29 -0.63999999
6.0100002 -5.29 -0.54000002
6.0100002 -5.29 -0.44
6.0100002 -5.29 -0.34
6.0100002 -5.29 -0.23999999
6.0100002 -5.29 -0.14
6.0100002 -5.29 -0.039999999
6.0100002 -5.29 0.059999999
6.0100002 -5.29 0.16
6.0100002 -5.29 0.25999999
6.0100002 -5.29 0.36000001
6.0100002 -5.29 0.46000001
6.0100002 -5.29 0.56
6.0100002 -5.29 0.66000003
6.0100002 -5.29 0.75999999
6.0100002 -5.29 0.86000001
6.0100002 -5.29 0.95999998
6.0100002 -5.29 1.0599999
6.0100002 -5.29 1.16
6.0100002 -5.29 1.26
6.0100002 -5.29 1.36
6.0100002 -5.29 1.46
6.0100002 -5.29 1.5599999
6.0100002 -5.29 1.66
6.0100002 -5.29 1.76
6.0100002 -5.29 1.86
6.0100002 -5.29 1.96
6.0100002 -5.29 2.0599999
6.0100002 -5.29 2.1600001
6.0100002 -5.29 2.26
6.0100002 -5.29 2.3599999
6.0100002 -5.29 2.46
6.0100002 -5.1900001 -2.9400001
6.0100002 -5.1900001 -2.8399999
6.0100002 -5.1900001 -2.74
6.0100002 -5.1900001 -2.6400001
6.0100002 -5.1900001 -2.54
6.0100002 -5.1900001 -2.4400001
6.0100002 -5.1900001 -2.3399999
6.0100002 -5.1900001 -2.24
6.0100002 -5.1900001 -2.1400001
6.0100002 -5.1900001 -2.04
6.0100002 -5.1900001 -1.9400001
6.0100002 -5.1900001 -1.84
6.0100002 -5.1900001 -1.74
6.0100002 -5.1900001 -1.64
6.0100002 -5.1900001 -1.54
6.0100002 -5.1900001 -1.4400001
6.0100002 -5.1900001 -1.34
6.0100002 -5.1900001 -1.24
6.0100002 -5.1900001 -1.14
6.0100002 -5.1900001 -1.04
6.0100002 -5.1900001 -0.94
6.0100002 -5.1900001 -0.83999997
6.0100002 -5.1900001 -0.74000001
6.0100002 -5.1900001 -0.63999999
6.0100002 -5.1900001 -0.54000002
6.0100002 -5.1900001 -0.44
6.0100002 -5.1900001 -0.34
6.0100002 -5.1900001 -0.23999999
6.0100002 -5.1900001 -0.14
6.0100002 -5.1900001 -0.039999999
6.0100002 -5.1900001 0.059999999
6.0100002 -5.1900001 0.16
6.0100002 -5.1900001 0.25999999
6.0100002 -5.1900001 0.36000001
6.0100002 -5.1900001 0.46000001
6.0100002 -5.1900001 0.56
6.0100002 -5.1900001 0.66000003
6.0100002 -5.1900001 0.75999999
6.0100002 -5.1900001 0.86000001
6.0100002 -5.1900001 0.95999998
6.0100002 -5.1900001 1.0599999
6.0100002 -5.1900001 1.16
6.0100002 -5.1900001 1.26
6.0100002 -5.1900001 1.36
6.0100002 -5.1900001 1.46
6.0100002 -5.1900001 1.5599999
6.0100002 -5.1900001 1.66
6.0100002 -5.1900001 1.76
6.1100001 -5.6900001 -2.9400001
6.1100001 -5.6900001 -2.8399999
6.1100001 -5.6900001 -2.74
6.1100001 -5.6900001 -2.6400001
6.1100001 -5.6900001 -2.54
6.1100001 -5.6900001 -2.4400001
6.1100001 -5.6900001 -2.3399999
6.1100001 -5.6900001 -2.24
6.1100001 -5.6900001 -2.1400001
6.1100001 -5.6900001 -2.04
6.1100001 -5.6900001 -1.9400001
6.1100001 -5.6900001 -1.84
6.1100001 -5.6900001 -1.74
6.1100001 -5.6900001 -1.64
6.1100001 -5.6900001 -1.54
6.1100001 -5.6900001 -1.4400001
6.1100001 -5.6900001 -1.34
6.1100001 -5.6900001 -1.24
6.1100001 -5.6900001 -1.14
6.1100001 -5.6900001 -1.04
6.1100001 -5.6900001 -0.94
6.1100001 -5.6900001 -0.83999997
6.1100001 -5.6900001 -0.74000001
6.1100001 -5.6900001 -0.63999999
6.1100001 -5.6900001 -0.54000002
6.1100001 -5.6900001 -0.44
6.1100001 -5.6900001 -0.34
6.1100001 -5.6900001 -0.23999999
6.1100001 -5.6900001 -0.14
6.1100001 -5.6900001 -0.039999999
6.1100001 -5.6900001 0.059999999
6.1100001 -5.6900001 0.16
6.1100001 -5.6900001 0.25999999
6.1100001 -5.6900001 0.36000001
6.1100001 -5.6900001 0.46000001
6.1100001 -5.6900001 0.56
6.1100001 -5.6900001 0.66000003
6.1100001 -5.6900001 0.75999999
6.1100001 -5.6900001 0.86000001
6.1100001 -5.6900001 0.95999998
6.1100001 -5.6900001 1.0599999
6.1100001 -5.6900001 1.16
6.1100001 -5.6900001 1.26
6.1100001 -5.6900001 1.36
6.1100001 -5.6900001 1.46
6.1100001 -5.6900001 1.5599999
6.1100001 -5.6900001 1.66
6.1100001 -5.6900001 1.76
6.1100001 -5.6900001 1.86
6.1100001 -5.6900001 1.96
6.1100001 -5.6900001 2.0599999
6.1100001 -5.6900001 2.1600001
6.1100001 -5.6900001 2.26
6.1100001 -5.6900001 2.3599999
6.1100001 -5.6900001 2.46
6.1100001 -5.6900001 2.5599999
6.1100001 -5.6900001 2.6600001
6.1100001 -5.5900002 -2.9400001
6.1100001 -5.5900002 -2.8399999
6.1100001 -5.5900002 -2.74
6.1100001 -5.5900002 -2.6400001
6.1100001 -5.5900002 -2.54
6.1100001 -5.5900002 -2.4400001
6.1100001 -5.5900002 -2.3399999
6.1100001 -5.5900002 -2.24
6.1100001 -5.5900002 -2.1400001
6.1100001 -5.5900002 -2.04
6.1100001 -5.5900002 -1.9400001
6.1100001 -5.5900002 -1.84
6.1100001 -5.5900002 -1.74
6.1100001 -5.5900002 -1.64
6.1100001 -5.5900002 -1.54
6.1100001 -5.5900002 -1.4400001
6.1100001 -5.5900002 -1.34
6.1100001 -5.5900002 -1.24
6.1100001 -5.5900002 -1.14
6.1100001 -5.5900002 -1.04
6.1100001 -5.5900002 -0.94
6.1100001 -5.5900002 -0.83999997
6.1100001 -5.5900002 -0.74000001
6.1100001 -5.5900002 -0.63999999
6.1100001 -5.5900002 -0.54000002
6.1100001 -5.5900002 -0.44
6.1100001 -5.5900002 -0.34
6.1100001 -5.5900002 -0.23999999
6.1100001 -5.5900002 -0.14
6.1100001 -5.5900002 -0.039999999
6.1100001 -5.5900002 0.059999999
6.1100001 -5.5900002 0.16
6.1100001 -5.5900002 0.25999999
6.1100001 -5.5900002 0.36000001
6.1100001 -5.4899998 -2.9400001
6.1100001 -5.4899998 -2.8399999
6.1100001 -5.4899998 -2.74
6.1100001 -5.4899998 -2.6400001
6.1100001 -5.4899998 -2.54
6.1100001 -5.4899998 -2.4400001
6.1100001 -5.4899998 -2.3399999
6.1100001 -5.4899998 -2.24
6.1100001 -5.4899998 -2.1400001
6.1100001 -5.4899998 -2.04
6.1100001 -5.4899998 -1.9400001
6.1100001 -5.4899998 -1.84
6.1100001 -5.4899998 -1.74
6.1100001 -5.4899998 -1.64
6.1100001 -5.4899998 -1.54
6.1100001 -5.4899998 -1.4400001
6.1100001 -5.4899998 -1.34
6.1100001 -5.4899998 -1.24
6.1100001 -5.4899998 -1.14
6.1100001 -5.4899998 -1.04
6.1100001 -5.4899998 -0.94
6.1100001 -5.4899998 -0.83999997
6.1100001 -5.4899998 -0.74000001
6.1100001 -5.4899998 -0.63999999
6.1100001 -5.4899998 -0.54000002
6.1100001 -5.4899998 -0.44
6.1100001 -5.4899998 -0.34
6.1100001 -5.4899998 -0.23999999
6.1100001 -5.4899998 -0.14
6.1100001 -5.4899998 -0.039999999
6.1100001 -5.4899998 0.059999999
6.1100001 -5.4899998 0.16
6.1100001 -5.4899998 0.25999999
6.1100001 -5.4899998 0.36000001
6.1100001 -5.4899998 0.46000001
6.1100001 -5.4899998 0.56
6.1100001 -5.4899998 0.66000003
6.1100001 -5.4899998 0.75999999
6.1100001 -5.3899999 -2.9400001
6.1100001 -5.3899999 -2.8399999
6.1100001 -5.3899999 -2.74
6.1100001 -5.3899999 -2.6400001
6.1100001 -5.3899999 -2.54
6.1100001 -5.3899999 -2.4400001
6.1100001 -5.3899999 -2.3399999
6.1100001 -5.3899999 -2.24
6.1100001 -5.3899999 -2.1400001
6.1100001 -5.3899999 -2.04
6.1100001 -5.3899999 -1.9400001
6.1100001 -5.3899999 -1.84
6.1100001 -5.3899999 -1.74
6.1100001 -5.3899999 -1.64
6.1100001 -5.3899999 -1.54
6.1100001 -5.3899999 -1.4400001
6.1100001 -5.3899999 -1.34
6.1100001 -5.3899999 -1.24
6.1100001 -5.3899999 -1.14
6.1100001 -5.3899999 -1.04
6.1100001 -5.3899999 -0.94
6.1100001 -5.3899999 -0.83999997
6.1100001 -5.3899999 -0.74000001
6.1100001 -5.3899999 -0.63999999
6.1100001 -5.3899999 -0.54000002
6.1100001 -5.3899999 -0.44
6.1100001 -5.3899999 -0.34
6.1100001 -5.3899999 -0.23999999
6.1100001 -5.3899999 -0.14
6.1100001 -5.3899999 -0.039999999
6.1100001 -5.3899999 0.059999999
6.1100001 -5.3899999 0.16
6.1100001 -5.3899999 0.25999999
6.1100001 -5.29 -2.9400001
6.1100001 -5.29 -2.8399999
6.1100001 -5.29 -2.74
6.1100001 -5.29 -2.6400001
6.1100001 -5.29 -2.54
6.1100001 -5.29 -2.4400001
6.1100001 -5.29 -2.3399999
6.1100001 -5.29 -2.24
6.1100001 -5.29 -2.1400001
6.1100001 -5.29 -2.04
6.1100001 -5.29 -1.9400001
6.1100001 -5.29 -1.84
6.1100001 -5.29 -1.74
6.1100001 -5.29 -1.64
6.1100001 -5.29 -1.54
6.1100001 -5.29 -1.4400001
6.1100001 -5.29 -1.34
6.1100001 -5.29 -1.24
6.1100001 -5.29 -1.14
6.1100001 -5.29 -1.04
6.1100001 -5.29 -0.94
6.1100001 -5.29 -0.83999997
6.1100001 -5.29 -0.74000001
6.1100001 -5.29 -0.63999999
6.1100001 -5.29 -0.54000002
6.1100001 -5.29 -0.44
6.1100001 -5.29 -0.34
6.1100001 -5.29 -0.23999999
6.1100001 -5.29 -0.14
6.1100001 -5.29 -0.039999999
6.1100001 -5.29 0.059999999
6.1100001 -5.29 0.16
6.1100001 -5.29 0.25999999
6.1100001 -5.29 0.36000001
6.1100001 -5.29 0.46000001
6.1100001 -5.29 0.56
6.1100001 -5.29 0.66000003
6.1100001 -5.29 0.75999999
6.1100001 -5.29 0.86000001
6.1100001 -5.29 0.95999998
6.1100001 -5.29 1.0599999
6.1100001 -5.29 1.16
6.1100001 -5.29 1.26
6.1100001 -5.1900001 -2.9400001
6.1100001 -5.1900001 -2.8399999
6.1100001 -5.1900001 -2.74
6.1100001 -5.1900001 -2.6400001
6.1100001 -5.1900001 -2.54
6.1100001 -5.1900001 -2.4400001
6.1100001 -5.1900001 -2.3399999
6.1100001 -5.1900001 -2.24
6.1100001 -5.1900001 -2.1400001
6.1100001 -5.1900001 -2.04
6.1100001 -5.1900001 -1.9400001
6.1100001 -5.1900001 -1.84
6.1100001 -5.1900001 -1.74
6.1100001 -5.1900001 -1.64
6.1100001 -5.1900001 -1.54
6.1100001 -5.1900001 -1.4400001
6.1100001 -5.1900001 -1.34
6.1100001 -5.1900001 -1.24
6.1100001 -5.1900001 -1.14
6.1100001 -5.1900001 -1.04
6.1100001 -5.1900001 -0.94
6.1100001 -5.1900001 -0.83999997
6.1100001 -5.1900001 -0.74000001
6.1100001 -5.1900001 -0.63999999
6.1100001 -5.1900001 -0.54000002
6.1100001 -5.1900001 -0.44
6.1100001 -5.1900001 -0.34
6.1100001 -5.1900001 -0.23999999
6.1100001 -5.1900001 -0.14
6.1100001 -5.1900001 -0.039999999
6.1100001 -5.1900001 0.059999999
6.1100001 -5.1900001 0.16
6.1100001 -5.1900001 0.25999999
6.1100001 -5.1900001 0.36000001
6.1100001 -5.1900001 0.46000001
6.1100001 -5.1900001 0.56
6.1100001 -5.1900001 0.66000003
6.1100001 -5.1900001 0.75999999
6.1100001 -5.1900001 0.86000001
6.1100001 -5.1900001 0.95999998
6.1100001 -5.1900001 1.0599999
6.1100001 -5.1900001 1.16
6.1100001 -5.1900001 1.26
6.1100001 -5.1900001 1.36
6.1100001 -5.1900001 1.46
6.1100001 -5.1900001 1.5599999
6.1100001 -5.1900001 1.66
6.1100001 -5.1900001 1.76
6.21 -5.6900001 -2.9400001
6.21 -5.6900001 -2.8399999
6.21 -5.6900001 -2.74
6.21 -5.6900001 -2.6400001
6.21 -5.6900001 -2.54
6.21 -5.6900001 -2.4400001
6.21 -5.6900001 -2.3399999
6.21 -5.6900001 -2.24
6.21 -5.6900001 -2.1400001
6.21 -5.6900001 -2.04
6.21 -5.6900001 -1.9400001
6.21 -5.6900001 -1.84
6.21 -5.6900001 -1.74
6.21 -5.6900001 -1.64
6.21 -5.6900001 -1.54
6.21 -5.6900001 -1.4400001
6.21 -5.6900001 -1.34
6.21 -5.6900001 -1.24
6.21 -5.6900001 -1.14
6.21 -5.6900001 -1.04
6.21 -5.6900001 -0.94
6.21 -5.6900001 -0.83999997
6.21 -5.6900001 -0.74000001
6.21 -5.6900001 -0.63999999
6.21 -5.6900001 -0.54000002
6.21 -5.6900001 -0.44
6.21 -5.6900001 -0.34
6.21 -5.6900001 -0.23999999
6.21 -5.6900001 -0.14
6.21 -5.6900001 -0.039999999
6.21 -5.6900001 0.059999999
6.21 -5.6900001 0.16
6.21 -5.5900002 -2.9400001
6.21 -5.5900002 -2.8399999
6.21 -5.5900002 -2.74
6.21 -5.5900002 -2.6400001
6.21 -5.5900002 -2.54
6.21 -5.5900002 -2.4400001
6.21 -5.5900002 -2.3399999
6.21 -5.5900002 -2.24
6.21 -5.5900002 -2.1400001
6.21 -5.5900002 -2.04
6.21 -5.5900002 -1.9400001
6.21 -5.5900002 -1.84
6.21 -5.5900002 -1.74
6.21 -5.5900002 -1.64
6.21 -5.5900002 -1.54
6.21 -5.5900002 -1.4400001
6.21 -5.5900002 -1.34
6.21 -5.5900002 -1.24
6.21 -5.5900002 -1.14
6.21 -5.5900002 -1.04
6.21 -5.5900002 -0.94
6.21 -5.5900002 -0.83999997
6.21 -5.5900002 -0.74000001
6.21 -5.5900002 -0.63999999
6.21 -5.5900002 -0.54000002
6.21 -5.5900002 -0.44
6.21 -5.5900002 -0.34
6.21 -5.5900002 -0.23999999
6.21 -5.5900002 -0.14
6.21 -5.5900002 -0.039999999
6.21 -5.5900002 0.059999999
6.21 -5.5900002 0.16
6.21 -5.5900002 0.25999999
6.21 -5.5900002 0.36000001
6.21 -5.5900002 0.46000001
6.21 -5.5900002 0.56
6.21 -5.5900002 0.66000003
6.21 -5.5900002 0.75999999
6.21 -5.5900002 0.86000001
6.21 -5.5900002 0.95999998
6.21 -5.5900002 1.0599999
6.21 -5.5900002 1.16
6.21 -5.5900002 1.26
6.21 -5.5900002 1.36
6.21 -5.5900002 1.46
6.21 -5.5900002 1.5599999
6.21 -5.4899998 -2.9400001
6.21 -5.4899998 -2.8399999
6.21 -5.4899998 -2.74
6.21 -5.4899998 -2.6400001
6.21 -5.4899998 -2.54
6.21 -5.4899998 -2.4400001
6.21 -5.4899998 -2.3399999
6.21 -5.4899998 -2.24
6.21 -5.4899998 -2.1400001
6.21 -5.4899998 -2.04
6.21 -5.4899998 -1.9400001
6.21 -5.4899998 -1.84
6.21 -5.4899998 -1.74
6.21 -5.4899998 -1.64
6.21 -5.4899998 -1.54
6.21 -5.4899998 -1.4400001
6.21 -5.4899998 -1.34
6.21 -5.4899998 -1.24
6.21 -5.4899998 -1.14
6.21 -5.4899998 -1.04
6.21 -5.4899998 -0.94
6.21 -5.4899998 -0.83999997
6.21 -5.4899998 -0.74000001
6.21 -5.4899998 -0.63999999
6.21 -5.4899998 -0.54000002
6.21 -5.4899998 -0.44
6.21 -5.4899998 -0.34
6.21 -5.4899998 -0.23999999
6.21 -5.4899998 -0.14
6.21 -5.4899998 -0.039999999
6.21 -5.4899998 0.059999999
6.21 -5.4899998 0.16
6.21 -5.4899998 0.25999999
6.21 -5.4899998 0.36000001
6.21 -5.4899998 0.46000001
6.21 -5.3899999 -2.9400001
6.21 -5.3899999 -2.8399999
6.21 -5.3899999 -2.74
6.21 -5.3899999 -2.6400001
6.21 -5.3899999 -2.54
6.21 -5.3899999 -2.4400001
6.21 -5.3899999 -2.3399999
6.21 -5.3899999 -2.24
6.21 -5.3899999 -2.1400001
6.21 -5.3899999 -2.04
6.21 -5.3899999 -1.9400001
6.21 -5.3899999 -1.84
6.21 -5.3899999 -1.74
6.21 -5.3899999 -1.64
6.21 -5.3899999 -1.54
6.21 -5.3899999 -1.4400001
6.21 -5.3899999 -1.34
6.21 -5.3899999 -1.24
6.21 -5.3899999 -1.14
6.21 -5.3899999 -1.04
6.21 -5.3899999 -0.94
6.21 -5.3899999 -0.83999997
6.21 -5.3899999 -0.74000001
6.21 -5.3899999 -0.63999999
6.21 -5.3899999 -0.54000002
6.21 -5.3899999 -0.44
6.21 -5.3899999 -0.34
6.21 -5.3899999 -0.23999999
6.21 -5.3899999 -0.14
6.21 -5.3899999 -0.039999999
6.21 -5.3899999 0.059999999
6.21 -5.3899999 0.16
6.21 -5.3899999 0.25999999
6.21 -5.3899999 0.36000001
6.21 -5.3899999 0.46000001
6.21 -5.3899999 0.56
6.21 -5.3899999 0.66000003
6.21 -5.3899999 0.75999999
6.21 -5.3899999 0.86000001
6.21 -5.3899999 0.95999998
6.21 -5.3899999 1.0599999
6.21 -5.3899999 1.16
6.21 -5.3899999 1.26
6.21 -5.3899999 1.36
6.21 -5.3899999 1.46
6.21 -5.3899999 1.5599999
6.21 -5.3899999 1.66
6.21 -5.3899999 1.76
6.21 -5.3899999 1.86
6.21 -5.3899999 1.96
6.21 -5.3899999 2.0599999
6.21 -5.29 -2.9400001
6.21 -5.29 -2.8399999
6.21 -5.29 -2.74
6.21 -5.29 -2.6400001
6.21 -5.29 -2.54
6.21 -5.29 -2.4400001
6.21 -5.29 -2.3399999
6.21 -5.29 -2.24
6.21 -5.29 -2.1400001
6.21 -5.29 -2.04
6.21 -5.29 -1.9400001
6.21 -5.29 -1.84
6.21 -5.29 -1.74
6.21 -5.29 -1.64
6.21 -5.29 -1.54
6.21 -5.29 -1.4400001
6.21 -5.29 -1.34
6.21 -5.29 -1.24
6.21 -5.29 -1.14
6.21 -5.29 -1.04
6.21 -5.29 -0.94
6.21 -5.29 -0.83999997
6.21 -5.29 -0.74000001
6.21 -5.29 -0.63999999
6.21 -5.29 -0.54000002
6.21 -5.29 -0.44
6.21 -5.29 -0.34
6.21 -5.29 -0.23999999
6.21 -5.29 -0.14
6.21 -5.29 -0.039999999
6.21 -5.29 0.059999999
6.21 -5.29 0.16
6.21 -5.29 0.25999999
6.21 -5.29 0.36000001
6.21 -5.29 0.46000001
6.21 -5.29 0.56
6.21 -5.29 0.66000003
6.21 -5.1900001 -2.9400001
6.21 -5.1900001 -2.8399999
6.21 -5.1900001 -2.74
6.21 -5.1900001 -2.6400001
6.21 -5.1900001 -2.54
6.21 -5.1900001 -2.4400001
6.21 -5.1900001 -2.3399999
6.21 -5.1900001 -2.24
6.21 -5.1900001 -2.1400001
6.21 -5.1900001 -2.04
6.21 -5.1900001 -1.9400001
6.21 -5.1900001 -1.84
6.21 -5.1900001 -1.74
6.21 -5.1900001 -1.64
6.21 -5.1900001 -1.54
6.21 -5.1900001 -1.4400001
6.21 -5.1900001 -1.34
6.21 -5.1900001 -1.24
6.21 -5.1900001 -1.14
6.21 -5.1900001 -1.04
6.21 -5.1900001 -0.94
6.21 -5.1900001 -0.83999997
6.21 -5.1900001 -0.74000001
6.21 -5.1900001 -0.63999999
6.21 -5.1900001 -0.54000002
6.21 -5.1900001 -0.44
6.21 -5.1900001 -0.34
6.21 -5.1900001 -0.23999999
6.21 -5.1900001 -0.14
6.21 -5.1900001 -0.039999999
6.21 -5.1900001 0.059999999
6.21 -5.1900001 0.16
-5.3899999 -7.3899999 -2.9400001
-5.3899999 -7.3899999 -2.8399999
-5.3899999 -7.3899999 -2.74
-5.3899999 -7.3899999 -2.6400001
-5.3899999 -7.3899999 -2.54
-5.3899999 -7.3899999 -2.4400001
-5.3899999 -7.3899999 -2.3399999
-5.3899999 -7.3899999 -2.24
-5.3899999 -7.3899999 -2.1400001
-5.3899999 -7.3899999 -2.04
-5.3899999 -7.3899999 -1.9400001
-5.3899999 -7.3899999 -1.84
-5.3899999 -7.3899999 -1.74
-5.3899999 -7.3899999 -1.64
-5.3899999 -7.3899999 -1.54
-5.3899999 -7.3899999 -1.4400001
-5.3899999 -7.3899999 -1.34
-5.3899999 -7.3899999 -1.24
-5.3899999 -7.3899999 -1.14
-5.3899999 -7.3899999 -1.04
-5.3899999 -7.3899999 -0.94
-5.3899999 -7.3899999 -0.83999997
-5.3899999 -7.3899999 -0.74000001
-5.3899999 -7.3899999 -0.63999999
-5.3899999 -7.3899999 -0.54000002
-5.3899999 -7.3899999 -0.44
-5.3899999 -7.3899999 -0.34
-5.3899999 -7.3899999 -0.23999999
-5.3899999 -7.3899999 -0.14
-5.3899999 -7.3899999 -0.039999999
-5.3899999 -7.3899999 0.059999999
-5.3899999 -7.3899999 0.16
-5.3899999 -7.3899999 0.25999999
-5.3899999 -7.3899999 0.36000001
-5.3899999 -7.3899999 0.46000001
-5.3899999 -7.3899999 0.56
-5.3899999 -7.3899999 0.66000003
-5.3899999 -7.3899999 0.75999999
-5.3899999 -7.3899999 0.86000001
-5.3899999 -7.3899999 0.95999998
-5.3899999 -7.3899999 1.0599999
-5.3899999 -7.3899999 1.16
-5.3899999 -7.3899999 1.26
-5.3899999 -7.3899999 1.36
-5.3899999 -7.3899999 1.46
-5.3899999 -7.3899999 1.5599999
-5.3899999 -7.29 -2.9400001
-5.3899999 -7.29 -2.8399999
-5.3899999 -7.29 -2.74
-5.3899999 -7.29 -2.6400001
-5.3899999 -7.29 -2.54
-5.3899999 -7.29 -2.4400001
-5.3899999 -7.29 -2.3399999
-5.3899999 -7.29 -2.24
-5.3899999 -7.29 -2.1400001
-5.3899999 -7.29 -2.04
-5.3899999 -7.29 -1.9400001
-5.3899999 -7.29 -1.84
-5.3899999 -7.29 -1.74
-5.3899999 -7.29 -1.64
-5.3899999 -7.29 -1.54
-5.3899999 -7.29 -1.4400001
-5.3899999 -7.29 -1.34
-5.3899999 -7.29 -1.24
-5.3899999 -7.29 -1.14
-5.3899999 -7.29 -1.04
-5.3899999 -7.29 -0.94
-5.3899999 -7.29 -0.83999997
-5.3899999 -7.29 -0.74000001
-5.3899999 -7.29 -0.63999999
-5.3899999 -7.29 -0.54000002
-5.3899999 -7.29 -0.44
-5.3899999 -7.29 -0.34
-5.3899999 -7.29 -0.23999999
-5.3899999 -7.29 -0.14
-5.3899999 -7.29 -0.039999999
-5.3899999 -7.29 0.059999999
-5.3899999 -7.29 0.16
-5.3899999 -7.29 0.25999999
-5.3899999 -7.29 0.36000001
-5.3899999 -7.29 0.46000001
-5.3899999 -7.29 0.56
-5.3899999 -7.29 0.66000003
-5.3899999 -7.29 0.75999999
-5.3899999 -7.29 0.86000001
-5.3899999 -7.29 0.95999998
-5.3899999 -7.29 1.0599999
-5.3899999 -7.29 1.16
-5.3899999 -7.29 1.26
-5.3899999 -7.29 1.36
-5.3899999 -7.29 1.46
-5.3899999 -7.29 1.5599999
-5.3899999 -7.29 1.66
-5.3899999 -7.29 1.76
-5.3899999 -7.1900001 -2.9400001
-5.3899999 -7.1900001 -2.8399999
-5.3899999 -7.1900001 -2.74
-5.3899999 -7.1900001 -2.6400001
-5.3899999 -7.1900001 -2.54
-5.3899999 -7.1900001 -2.4400001
-5.3899999 -7.1900001 -2.3399999
-5.3899999 -7.1900001 -2.24
-5.3899999 -7.1900001 -2.1400001
-5.3899999 -7.1900001 -2.04
-5.3899999 -7.1900001 -1.9400001
-5.3899999 -7.1900001 -1.84
-5.3899999 -7.1900001 -1.74
-5.3899999 -7.1900001 -1.64
-5.3899999 -7.1900001 -1.54
-5.3899999 -7.1900001 -1.4400001
-5.3899999 -7.1900001 -1.34
-5.3899999 -7.1900001 -1.24
-5.3899999 -7.1900001 -1.14
-5.3899999 -7.1900001 -1.04
-5.3899999 -7.1900001 -0.94
-5.3899999 -7.1900001 -0.83999997
-5.3899999 -7.1900001 -0.74000001
-5.3899999 -7.1900001 -0.63999999
-5.3899999 -7.1900001 -0.54000002
-5.3899999 -7.1900001 -0.44
-5.3899999 -7.1900001 -0.34
-5.3899999 -7.1900001 -0.23999999
-5.3899999 -7.1900001 -0.14
-5.3899999 -7.1900001 -0.039999999
-5.3899999 -7.1900001 0.059999999
-5.3899999 -7.1900001 0.16
-5.3899999 -7.1900001 0.25999999
-5.3899999 -7.0900002 -2.9400001
-5.3899999 -7.0900002 -2.8399999
-5.3899999 -7.0900002 -2.74
-5.3899999 -7.0900002 -2.6400001
-5.3899999 -7.0900002 -2.54
-5.3899999 -7.0900002 -2.4400001
-5.3899999 -7.0900002 -2.3399999
-5.3899999 -7.0900002 -2.24
-5.3899999 -7.0900002 -2.1400001
-5.3899999 -7.0900002 -2.04
-5.3899999 -7.0900002 -1.9400001
-5.3899999 -7.0900002 -1.84
-5.3899999 -7.0900002 -1.74
-5.3899999 -7.0900002 -1.64
-5.3899999 -7.0900002 -1.54
-5.3899999 -7.0900002 -1.4400001
-5.3899999 -7.0900002 -1.34
-5.3899999 -7.0900002 -1.24
-5.3899999 -7.0900002 -1.14
-5.3899999 -7.0900002 -1.04
-5.3899999 -7.0900002 -0.94
-5.3899999 -7.0900002 -0.83999997
-5.3899999 -7.0900002 -0.74000001
-5.3899999 -7.0900002 -0.63999999
-5.3899999 -7.0900002 -0.54000002
-5.3899999 -7.0900002 -0.44
-5.3899999 -7.0900002 -0.34
-5.3899999 -7.0900002 -0.23999999
-5.3899999 -7.0900002 -0.14
-5.3899999 -7.0900002 -0.039999999
-5.3899999 -7.0900002 0.059999999
-5.3899999 -7.0900002 0.16
-5.3899999 -7.0900002 0.25999999
-5.3899999 -7.0900002 0.36000001
-5.3899999 -7.0900002 0.46000001
-5.3899999 -7.0900002 0.56
-5.3899999 -7.0900002 0.66000003
-5.3899999 -7.0900002 0.75999999
-5.3899999 -7.0900002 0.86000001
-5.3899999 -7.0900002 0.95999998
-5.3899999 -7.0900002 1.0599999
-5.3899999 -6.9899998 -2.9400001
-5.3899999 -6.9899998 -2.8399999
-5.3899999 -6.9899998 -2.74
-5.3899999 -6.9899998 -2.6400001
-5.3899999 -6.9899998 -2.54
-5.3899999 -6.9899998 -2.4400001
-5.3899999 -6.9899998 -2.3399999
-5.3899999 -6.9899998 -2.24
-5.3899999 -6.9899998 -2.1400001
-5.3899999 -6.9899998 -2.04
-5.3899999 -6.9899998 -1.9400001
-5.3899999 -6.9899998 -1.84
-5.3899999 -6.9899998 -1.74
-5.3899999 -6.9899998 -1.64
-5.3899999 -6.9899998 -1.54
-5.3899999 -6.9899998 -1.4400001
-5.3899999 -6.9899998 -1.34
-5.3899999 -6.9899998 -1.24
-5.3899999 -6.9899998 -1.14
-5.3899999 -6.9899998 -1.04
-5.3899999 -6.9899998 -0.94
-5.3899999 -6.9899998 -0.83999997
-5.3899999 -6.9899998 -0.74000001
-5.3899999 -6.9899998 -0.63999999
-5.3899999 -6.9899998 -0.54000002
-5.3899999 -6.9899998 -0.44
-5.3899999 -6.9899998 -0.34
-5.3899999 -6.9899998 -0.23999999
-5.3899999 -6.9899998 -0.14
-5.3899999 -6.9899998 -0.039999999
-5.3899999 -6.9899998 0.059999999
-5.3899999 -6.9899998 0.16
-5.3899999 -6.9899998 0.25999999
-5.3899999 -6.9899998 0.36000001
-5.3899999 -6.8899999 -2.9400001
-5.3899999 -6.8899999 -2.8399999
-5.3899999 -6.8899999 -2.74
-5.3899999 -6.8899999 -2.6400001
-5.3899999 -6.8899999 -2.54
-5.3899999 -6.8899999 -2.4400001
-5.3899999 -6.8899999 -2.3399999
-5.3899999 -6.8899999 -2.24
-5.3899999 -6.8899999 -2.1400001
-5.3899999 -6.8899999 -2.04
-5.3899999 -6.8899999 -1.9400001
-5.3899999 -6.8899999 -1.84
-5.3899999 -6.8899999 -1.74
-5.3899999 -6.8899999 -1.64
-5.3899999 -6.8899999 -1.54
-5.3899999 -6.8899999 -1.4400001
-5.3899999 -6.8899999 -1.34
-5.3899999 -6.8899999 -1.24
-5.3899999 -6.8899999 -1.14
-5.3899999 -6.8899999 -1.04
-5.3899999 -6.8899999 -0.94
-5.3899999 -6.8899999 -0.83999997
-5.3899999 -6.8899999 -0.74000001
-5.3899999 -6.8899999 -0.63999999
-5.3899999 -6.8899999 -0.54000002
-5.3899999 -6.8899999 -0.44
-5.3899999 -6.8899999 -0.34
-5.3899999 -6.8899999 -0.23999999
-5.3899999 -6.8899999 -0.14
-5.3899999 -6.8899999 -0.039999999
-5.3899999 -6.8899999 0.059999999
-5.3899999 -6.8899999 0.16
-5.3899999 -6.8899999 0.25999999
-5.3899999 -6.8899999 0.36000001
-5.3899999 -6.8899999 0.46000001
-5.29 -7.3899999 -2.9400001
-5.29 -7.3899999 -2.8399999
-5.29 -7.3899999 -2.74
-5.29 -7.3899999 -2.6400001
-5.29 -7.3899999 -2.54
-5.29 -7.3899999 -2.4400001
-5.29 -7.3899999 -2.3399999
-5.29 -7.3899999 -2.24
-5.29 -7.3899999 -2.1400001
-5.29 -7.3899999 -2.04
-5.29 -7.3899999 -1.9400001
-5.29 -7.3899999 -1.84
-5.29 -7.3899999 -1.74
-5.29 -7.3899999 -1.64
-5.29 -7.3899999 -1.54
-5.29 -7.3899999 -1.4400001
-5.29 -7.3899999 -1.34
-5.29 -7.3899999 -1.24
-5.29 -7.3899999 -1.14
-5.29 -7.3899999 -1.04
-5.29 -7.3899999 -0.94
-5.29 -7.3899999 -0.83999997
-5.29 -7.3899999 -0.74000001
-5.29 -7.3899999 -0.63999999
-5.29 -7.3899999 -0.54000002
-5.29 -7.3899999 -0.44
-5.29 -7.3899999 -0.34
-5.29 -7.3899999 -0.23999999
-5.29 -7.3899999 -0.14
-5.29 -7.3899999 -0.039999999
-5.29 -7.3899999 0.059999999
-5.29 -7.3899999 0.16
-5.29 -7.3899999 0.25999999
-5.29 -7.3899999 0.36000001
-5.29 -7.3899999 0.46000001
-5.29 -7.3899999 0.56
-5.29 -7.3899999 0.66000003
-5.29 -7.3899999 0.75999999
-5.29 -7.3899999 0.86000001
-5.29 -7.3899999 0.95999998
-5.29 -7.3899999 1.0599999
-5.29 -7.3899999 1.16
-5.29 -7.3899999 1.26
-5.29 -7.3899999 1.36
-5.29 -7.3899999 1.46
-5.29 -7.29 -2.9400001
-5.29 -7.29 -2.8399999
-5.29 -7.29 -2.74
-5.29 -7.29 -2.6400001
-5.29 -7.29 -2.54
-5.29 -7.29 -2.4400001
-5.29 -7.29 -2.3399999
-5.29 -7.29 -2.24
-5.29 -7.29 -2.1400001
-5.29 -7.29 -2.04
-5.29 -7.29 -1.9400001
-5.29 -7.29 -1.84
-5.29 -7.29 -1.74
-5.29 -7.29 -1.64
-5.29 -7.29 -1.54
-5.29 -7.29 -1.4400001
-5.29 -7.29 -1.34
-5.29 -7.29 -1.24
-5.29 -7.29 -1.14
-5.29 -7.29 -1.04
-5.29 -7.29 -0.94
-5.29 -7.29 -0.83999997
-5.29 -7.29 -0.74000001
-5.29 -7.29 -0.63999999
-5.29 -7.29 -0.54000002
-5.29 -7.29 -0.44
-5.29 -7.29 -0.34
-5.29 -7.29 -0.23999999
-5.29 -7.29 -0.14
-5.29 -7.29 -0.039999999
-5.29 -7.29 0.059999999
-5.29 -7.29 0.16
-5.29 -7.29 0.25999999
-5.29 -7.29 0.36000001
-5.29 -7.29 0.46000001
-5.29 -7.29 0.56
-5.29 -7.29 0.66000003
-5.29 -7.29 0.75999999
-5.29 -7.29 0.86000001
-5.29 -7.29 0.95999998
-5.29 -7.29 1.0599999
-5.29 -7.29 1.16
-5.29 -7.29 1.26
-5.29 -7.29 1.36
-5.29 -7.29 1.46
-5.29 -7.1900001 -2.9400001
-5.29 -7.1900001 -2.8399999
-5.29 -7.1900001 -2.74
-5.29 -7.1900001 -2.6400001
-5.29 -7.1900001 -2.54
-5.29 -7.1900001 -2.4400001
-5.29 -7.1900001 -2.3399999
-5.29 -7.1900001 -2.24
-5.29 -7.1900001 -2.1400001
-5.29 -7.1900001 -2.04
-5.29 -7.1900001 -1.9400001
-5.29 -7.1900001 -1.84
-5.29 -7.1900001 -1.74
-5.29 -7.1900001 -1.64
-5.29 -7.1900001 -1.54
-5.29 -7.1900001 -1.4400001
-5.29 -7.1900001 -1.34
-5.29 -7.1900001 -1.24
-5.29 -7.1900001 -1.14
-5.29 -7.1900001 -1.04
-5.29 -7.1900001 -0.94
-5.29 -7.1900001 -0.83999997
-5.29 -7.1900001 -0.74000001
-5.29 -7.1900001 -0.63999999
-5.29 -7.1900001 -0.54000002
-5.29 -7.1900001 -0.44
-5.29 -7.1900001 -0.34
-5.29 -7.1900001 -0.23999999
-5.29 -7.1900001 -0.14
-5.29 -7.1900001 -0.039999999
-5.29 -7.1900001 0.059999999
-5.29 -7.1900001 0.16
-5.29 -7.1900001 0.25999999
-5.29 -7.1900001 0.36000001
-5.29 -7.1900001 0.46000001
-5.29 -7.1900001 0.56
-5.29 -7.1900001 0.66000003
-5.29 -7.1900001 0.75999999
-5.29 -7.1900001 0.86000001
-5.29 -7.0900002 -2.9400001
-5.29 -7.0900002 -2.8399999
-5.29 -7.0900002 -2.74
-5.29 -7.0900002 -2.6400001
-5.29 -7.0900002 -2.54
-5.29 -7.0900002 -2.4400001
-5.29 -7.0900002 -2.3399999
-5.29 -7.0900002 -2.24
-5.29 -7.0900002 -2.1400001
-5.29 -7.0900002 -2.04
-5.29 -7.0900002 -1.9400001
-5.29 -7.0900002 -1.84
-5.29 -7.0900002 -1.74
-5.29 -7.0900002 -1.64
-5.29 -7.0900002 -1.54
-5.29 -7.0900002 -1.4400001
-5.29 -7.0900002 -1.34
-5.29 -7.0900002 -1.24
-5.29 -7.0900002 -1.14
-5.29 -7.0900002 -1.04
-5.29 -7.0900002 -0.94
-5.29 -7.0900002 -0.83999997
-5.29 -7.0900002 -0.74000001
-5.29 -7.0900002 -0.63999999
-5.29 -7.0900002 -0.54000002
-5.29 -7.0900002 -0.44
-5.29 -7.0900002 -0.34
-5.29 -7.0900002 -0.23999999
-5.29 -7.0900002 -0.14
-5.29 -7.0900002 -0.039999999
-5.29 -7.0900002 0.059999999
-5.29 -7.0900002 0.16
-5.29 -7.0900002 0.25999999
-5.29 -7.0900002 0.36000001
-5.29 -7.0900002 0.46000001
-5.29 -7.0900002 0.56
-5.29 -7.0900002 0.66000003
-5.29 -7.0900002 0.75999999
-5.29 -7.0900002 0.86000001
-5.29 -7.0900002 0.95999998
-5.29 -7.0900002 1.0599999
-5.29 -7.0900002 1.16
-5.29 -7.0900002 1.26
-5.29 -7.0900002 1.36
-5.29 -7.0900002 1.46
-5.29 -7.0900002 1.5599999
-5.29 -7.0900002 1.66
-5.29 -6.9899998 -2.9400001
-5.29 -6.9899998 -2.8399999
-5.29 -6.9899998 -2.74
-5.29 -6.9899998 -2.6400001
-5.29 -6.9899998 -2.54
-5.29 -6.9899998 -2.4400001
-5.29 -6.9899998 -2.3399999
-5.29 -6.9899998 -2.24
-5.29 -6.9899998 -2.1400001
-5.29 -6.9899998 -2.04
-5.29 -6.9899998 -1.9400001
-5.29 -6.9899998 -1.84
-5.29 -6.9899998 -1.74
-5.29 -6.9899998 -1.64
-5.29 -6.9899998 -1.54
-5.29 -6.9899998 -1.4400001
-5.29 -6.9899998 -1.34
-5.29 -6.9899998 -1.24
-5.29 -6.9899998 -1.14
-5.29 -6.9899998 -1.04
-5.29 -6.9899998 -0.94
-5.29 -6.9899998 -0.83999997
-5.29 -6.9899998 -0.74000001
-5.29 -6.9899998 -0.63999999
-5.29 -6.9899998 -0.54000002
-5.29 -6.9899998 -0.44
-5.29 -6.9899998 -0.34
-5.29 -6.9899998 -0.23999999
-5.29 -6.9899998 -0.14
-5.29 -6.9899998 -0.039999999
-5.29 -6.9899998 0.059999999
-5.29 -6.9899998 0.16
-5.29 -6.9899998 0.25999999
-5.29 -6.9899998 0.36000001
-5.29 -6.9899998 0.46000001
-5.29 -6.9899998 0.56
-5.29 -6.8899999 -2.9400001
-5.29 -6.8899999 -2.8399999
-5.29 -6.8899999 -2.74
-5.29 -6.8899999 -2.6400001
-5.29 -6.8899999 -2.54
-5.29 -6.8899999 -2.4400001
-5.29 -6.8899999 -2.3399999
-5.29 -6.8899999 -2.24
-5.29 -6.8899999 -2.1400001
-5.29 -6.8899999 -2.04
-5.29 -6.8899999 -1.9400001
-5.29 -6.8899999 -1.84
-5.29 -6.8899999 -1.74
-5.29 -6.8899999 -1.64
-5.29 -6.8899999 -1.54
-5.29 -6.8899999 -1.4400001
-5.29 -6.8899999 -1.34
-5.29 -6.8899999 -1.24
-5.29 -6.8899999 -1.14
-5.29 -6.8899999 -1.04
-5.29 -6.8899999 -0.94
-5.29 -6.8899999 -0.83999997
-5.29 -6.8899999 -0.74000001
-5.29 -6.8899999 -0.63999999
-5.29 -6.8899999 -0.54000002
-5.29 -6.8899999 -0.44
-5.29 -6.8899999 -0.34
-5.29 -6.8899999 -0.23999999
-5.29 -6.8899999 -0.14
-5.29 -6.8899999 -0.039999999
-5.29 -6.8899999 0.059999999
-5.1900001 -7.3899999 -2.9400001
-5.1900001 -7.3899999 -2.8399999
-5.1900001 -7.3899999 -2.74
-5.1900001 -7.3899999 -2.6400001
-5.1900001 -7.3899999 -2.54
-5.1900001 -7.3899999 -2.4400001
-5.1900001 -7.3899999 -2.3399999
-5.1900001 -7.3899999 -2.24
-5.1900001 -7.3899999 -2.1400001
-5.1900001 -7.3899999 -2.04
-5.1900001 -7.3899999 -1.9400001
-5.1900001 -7.3899999 -1.84
-5.1900001 -7.3899999 -1.74
-5.1900001 -7.3899999 -1.64
-5.1900001 -7.3899999 -1.54
-5.1900001 -7.3899999 -1.4400001
-5.1900001 -7.3899999 -1.34
-5.1900001 -7.3899999 -1.24
-5.1900001 -7.3899999 -1.14
-5.1900001 -7.3899999 -1.04
-5.1900001 -7.3899999 -0.94
-5.1900001 -7.3899999 -0.83999997
-5.1900001 -7.3899999 -0.74000001
-5.1900001 -7.3899999 -0.63999999
-5.1900001 -7.3899999 -0.54000002
-5.1900001 -7.3899999 -0.44
-5.1900001 -7.3899999 -0.34
-5.1900001 -7.3899999 -0.23999999
-5.1900001 -7.3899999 -0.14
-5.1900001 -7.3899999 -0.039999999
-5.1900001 -7.3899999 0.059999999
-5.1900001 -7.3899999 0.16
-5.1900001 -7.3899999 0.25999999
-5.1900001 -7.3899999 0.36000001
-5.1900001 -7.3899999 0.46000001
-5.1900001 -7.3899999 0.56
-5.1900001 -7.3899999 0.66000003
-5.1900001 -7.3899999 0.75999999
-5.1900001 -7.3899999 0.86000001
-5.1900001 -7.3899999 0.95999998
-5.1900001 -7.3899999 1.0599999
-5.1900001 -7.3899999 1.16
-5.1900001 -7.3899999 1.26
-5.1900001 -7.3899999 1.36
-5.1900001 -7.3899999 1.46
-5.1900001 -7.3899999 1.5599999
-5.1900001 -7.3899999 1.66
-5.1900001 -7.3899999 1.76
-5.1900001 -7.3899999 1.86
-5.1900001 -7.3899999 1.96
-5.1900001 -7.3899999 2.0599999
-5.1900001 -7.3899999 2.1600001
-5.1900001 -7.3899999 2.26
-5.1900001 -7.3899999 2.3599999
-5.1900001 -7.3899999 2.46
-5.1900001 -7.3899999 2.5599999
-5.1900001 -7.3899999 2.6600001
-5.1900001 -7.3899999 2.76
-5.1900001 -7.3899999 2.8599999
-5.1900001 -7.29 -2.9400001
-5.1900001 -7.29 -2.8399999
-5.1900001 -7.29 -2.74
-5.1900001 -7.29 -2.6400001
-5.1900001 -7.29 -2.54
-5.1900001 -7.29 -2.4400001
-5.1900001 -7.29 -2.3399999
-5.1900001 -7.29 -2.24
-5.1900001 -7.29 -2.1400001
-5.1900001 -7.29 -2.04
-5.1900001 -7.29 -1.9400001
-5.1900001 -7.29 -1.84
-5.1900001 -7.29 -1.74
-5.1900001 -7.29 -1.64
-5.1900001 -7.29 -1.54
-5.1900001 -7.29 -1.4400001
-5.1900001 -7.29 -1.34
-5.1900001 -7.29 -1.24
-5.1900001 -7.29 -1.14
-5.1900001 -7.29 -1.04
-5.1900001 -7.29 -0.94
-5.1900001 -7.29 -0.83999997
-5.1900001 -7.29 -0.74000001
-5.1900001 -7.29 -0.63999999
-5.1900001 -7.29 -0.54000002
-5.1900001 -7.29 -0.44
-5.1900001 -7.29 -0.34
-5.1900001 -7.29 -0.23999999
-5.1900001 -7.29 -0.14
-5.1900001 -7.29 -0.039999999
-5.1900001 -7.29 0.059999999
-5.1900001 -7.29 0.16
-5.1900001 -7.29 0.25999999
-5.1900001 -7.29 0.36000001
-5.1900001 -7.29 0.46000001
-5.1900001 -7.29 0.56
-5.1900001 -7.29 0.66000003
-5.1900001 -7.29 0.75999999
-5.1900001 -7.29 0.86000001
-5.1900001 -7.29 0.95999998
-5.1900001 -7.29 1.0599999
-5.1900001 -7.29 1.16
-5.1900001 -7.29 1.26
-5.1900001 -7.29 1.36
-5.1900001 -7.29 1.46
-5.1900001 -7.29 1.5599999
-5.1900001 -7.29 1.66
-5.1900001 -7.29 1.76
-5.1900001 -7.29 1.86
-5.1900001 -7.29 1.96
-5.1900001 -7.29 2.0599999
-5.1900001 -7.29 2.1600001
-5.1900001 -7.1900001 -2.9400001
-5.1900001 -7.1900001 -2.8399999
-5.1900001 -7.1900001 -2.74
-5.1900001 -7.1900001 -2.6400001
-5.1900001 -7.1900001 -2.54
-5.1900001 -7.1900001 -2.4400001
-5.1900001 -7.1900001 -2.3399999
-5.1900001 -7.1900001 -2.24
-5.1900001 -7.1900001 -2.1400001
-5.1900001 -7.1900001 -2.04
-5.1900001 -7.1900001 -1.9400001
-5.1900001 -7.1900001 -1.84
-5.1900001 -7.1900001 -1.74
-5.1900001 -7.1900001 -1.64
-5.1900001 -7.1900001 -1.54
-5.1900001 -7.1900001 -1.4400001
-5.1900001 -7.1900001 -1.34
-5.1900001 -7.1900001 -1.24
-5.1900001 -7.1900001 -1.14
-5.1900001 -7.1900001 -1.04
-5.1900001 -7.1900001 -0.94
-5.1900001 -7.1900001 -0.83999997
-5.1900001 -7.1900001 -0.74000001
-5.1900001 -7.1900001 -0.63999999
-5.1900001 -7.1900001 -0.54000002
-5.1900001 -7.1900001 -0.44
-5.1900001 -7.1900001 -0.34
-5.1900001 -7.1900001 -0.23999999
-5.1900001 -7.1900001 -0.14
-5.1900001 -7.1900001 -0.039999999
-5.1900001 -7.1900001 0.059999999
-5.1900001 -7.1900001 0.16
-5.1900001 -7.1900001 0.25999999
-5.1900001 -7.1900001 0.36000001
-5.1900001 -7.1900001 0.46000001
-5.1900001 -7.1900001 0.56
-5.1900001 -7.1900001 0.66000003
-5.1900001 -7.1900001 0.75999999
-5.1900001 -7.1900001 0.86000001
-5.1900001 -7.1900001 0.95999998
-5.1900001 -7.1900001 1.0599999
-5.1900001 -7.1900001 1.16
-5.1900001 -7.1900001 1.26
-5.1900001 -7.1900001 1.36
-5.1900001 -7.1900001 1.46
-5.1900001 -7.1900001 1.5599999
-5.1900001 -7.1900001 1.66
-5.1900001 -7.0900002 -2.9400001
-5.1900001 -7.0900002 -2.8399999
-5.1900001 -7.0900002 -2.74
-5.1900001 -7.0900002 -2.6400001
-5.1900001 -7.0900002 -2.54
-5.1900001 -7.0900002 -2.4400001
-5.1900001 -7.0900002 -2.3399999
-5.1900001 -7.0900002 -2.24
-5.1900001 -7.0900002 -2.1400001
-5.1900001 -7.0900002 -2.04
-5.1900001 -7.0900002 -1.9400001
-5.1900001 -7.0900002 -1.84
-5.1900001 -7.0900002 -1.74
-5.1900001 -7.0900002 -1.64
-5.1900001 -7.0900002 -1.54
-5.1900001 -7.0900002 -1.4400001
-5.1900001 -7.0900002 -1.34
-5.1900001 -7.0900002 -1.24
-5.1900001 -7.0900002 -1.14
-5.1900001 -7.0900002 -1.04
-5.1900001 -7.0900002 -0.94
-5.1900001 -7.0900002 -0.83999997
-5.1900001 -7.0900002 -0.74000001
-5.1900001 -7.0900002 -0.63999999
-5.1900001 -7.0900002 -0.54000002
-5.1900001 -7.0900002 -0.44
-5.1900001 -7.0900002 -0.34
-5.1900001 -7.0900002 -0.23999999
-5.1900001 -7.0900002 -0.14
-5.1900001 -7.0900002 -0.039999999
-5.1900001 -7.0900002 0.059999999
-5.1900001 -7.0900002 0.16
-5.1900001 -7.0900002 0.25999999
-5.1900001 -7.0900002 0.36000001
-5.1900001 -7.0900002 0.46000001
-5.1900001 -7.0900002 0.56
-5.1900001 -7.0900002 0.66000003
-5.1900001 -7.0900002 0.75999999
-5.1900001 -7.0900002 0.86000001
-5.1900001 -7.0900002 0.95999998
-5.1900001 -7.0900002 1.0599999
-5.1900001 -7.0900002 1.16
-5.1900001 -7.0900002 1.26
-5.1900001 -7.0900002 1.36
-5.1900001 -7.0900002 1.46
-5.1900001 -7.0900002 1.5599999
-5.1900001 -6.9899998 -2.9400001
-5.1900001 -6.9899998 -2.8399999
-5.1900001 -6.9899998 -2.74
-5.1900001 -6.9899998 -2.6400001
-5.1900001 -6.9899998 -2.54
-5.1900001 -6.9899998 -2.4400001
-5.1900001 -6.9899998 -2.3399999
-5.1900001 -6.9899998 -2.24
-5.1900001 -6.9899998 -2.1400001
-5.1900001 -6.9899998 -2.04
-5.1900001 -6.9899998 -1.9400001
-5.1900001 -6.9899998 -1.84
-5.1900001 -6.9899998 -1.74
-5.1900001 -6.9899998 -1.64
-5.1900001 -6.9899998 -1.54
-5.1900001 -6.9899998 -1.4400001
-5.1900001 -6.9899998 -1.34
-5.1900001 -6.9899998 -1.24
-5.1900001 -6.9899998 -1.14
-5.1900001 -6.9899998 -1.04
-5.1900001 -6.9899998 -0.94
-5.1900001 -6.9899998 -0.83999997
-5.1900001 -6.9899998 -0.74000001
-5.1900001 -6.9899998 -0.63999999
-5.1900001 -6.9899998 -0.54000002
-5.1900001 -6.9899998 -0.44
-5.1900001 -6.9899998 -0.34
-5.1900001 -6.9899998 -0.23999999
-5.1900001 -6.9899998 -0.14
-5.1900001 -6.9899998 -0.039999999
-5.1900001 -6.9899998 0.059999999
-5.1900001 -6.9899998 0.16
-5.1900001 -6.9899998 0.25999999
-5.1900001 -6.9899998 0.36000001
-5.1900001 -6.9899998 0.46000001
-5.1900001 -6.9899998 0.56
-5.1900001 -6.9899998 0.66000003
-5.1900001 -6.9899998 0.75999999
-5.1900001 -6.9899998 0.86000001
-5.1900001 -6.9899998 0.95999998
-5.1900001 -6.9899998 1.0599999
-5.1900001 -6.9899998 1.16
-5.1900001 -6.8899999 -2.9400001
-5.1900001 -6.8899999 -2.8399999
-5.1900001 -6.8899999 -2.74
-5.1900001 -6.8899999 -2.6400001
-5.1900001 -6.8899999 -2.54
-5.1900001 -6.8899999 -2.4400001
-5.1900001 -6.8899999 -2.3399999
-5.1900001 -6.8899999 -2.24
-5.1900001 -6.8899999 -2.1400001
-5.1900001 -6.8899999 -2.04
-5.1900001 -6.8899999 -1.9400001
-5.1900001 -6.8899999 -1.84
-5.1900001 -6.8899999 -1.74
-5.1900001 -6.8899999 -1.64
-5.1900001 -6.8899999 -1.54
-5.1900001 -6.8899999 -1.4400001
-5.1900001 -6.8899999 -1.34
-5.1900001 -6.8899999 -1.24
-5.1900001 -6.8899999 -1.14
-5.1900001 -6.8899999 -1.04
-5.1900001 -6.8899999 -0.94
-5.1900001 -6.8899999 -0.83999997
-5.1900001 -6.8899999 -0.74000001
-5.1900001 -6.8899999 -0.63999999
-5.1900001 -6.8899999 -0.54000002
-5.1900001 -6.8899999 -0.44
-5.1900001 -6.8899999 -0.34
-5.1900001 -6.8899999 -0.23999999
-5.1900001 -6.8899999 -0.14
-5.1900001 -6.8899999 -0.039999999
-5.1900001 -6.8899999 0.059999999
-5.1900001 -6.8899999 0.16
-5.1900001 -6.8899999 0.25999999
-5.1900001 -6.8899999 0.36000001
-5.1900001 -6.8899999 0.46000001
-5.1900001 -6.8899999 0.56
-5.1900001 -6.8899999 0.66000003
-5.1900001 -6.8899999 0.75999999
-5.1900001 -6.8899999 0.86000001
-5.1900001 -6.8899999 0.95999998
-5.1900001 -6.8899999 1.0599999
-5.1900001 -6.8899999 1.16
-5.1900001 -6.8899999 1.26
-5.1900001 -6.8899999 1.36
-5.0900002 -7.3899999 -2.9400001
-5.0900002 -7.3899999 -2.8399999
-5.0900002 -7.3899999 -2.74
-5.0900002 -7.3899999 -2.6400001
-5.0900002 -7.3899999 -2.54
-5.0900002 -7.3899999 -2.4400001
-5.0900002 -7.3899999 -2.3399999
-5.0900002 -7.3899999 -2.24
-5.0900002 -7.3899999 -2.1400001
-5.0900002 -7.3899999 -2.04
-5.0900002 -7.3899999 -1.9400001
-5.0900002 -7.3899999 -1.84
-5.0900002 -7.3899999 -1.74
-5.0900002 -7.3899999 -1.64
-5.0900002 -7.3899999 -1.54
-5.0900002 -7.3899999 -1.4400001
-5.0900002 -7.3899999 -1.34
-5.0900002 -7.3899999 -1.24
-5.0900002 -7.3899999 -1.14
-5.0900002 -7.3899999 -1.04
-5.0900002 -7.3899999 -0.94
-5.0900002 -7.3899999 -0.83999997
-5.0900002 -7.3899999 -0.74000001
-5.0900002 -7.3899999 -0.63999999
-5.0900002 -7.3899999 -0.54000002
-5.0900002 -7.3899999 -0.44
-5.0900002 -7.3899999 -0.34
-5.0900002 -7.3899999 -0.23999999
-5.0900002 -7.3899999 -0.14
-5.0900002 -7.3899999 -0.039999999
-5.0900002 -7.3899999 0.059999999
-5.0900002 -7.3899999 0.16
-5.0900002 -7.3899999 0.25999999
-5.0900002 -7.3899999 0.36000001
-5.0900002 -7.3899999 0.46000001
-5.0900002 -7.3899999 0.56
-5.0900002 -7.3899999 0.66000003
-5.0900002 -7.3899999 0.75999999
-5.0900002 -7.3899999 0.86000001
-5.0900002 -7.3899999 0.95999998
-5.0900002 -7.3899999 1.0599999
-5.0900002 -7.3899999 1.16
-5.0900002 -7.3899999 1.26
-5.0900002 -7.3899999 1.36
-5.0900002 -7.3899999 1.46
-5.0900002 -7.3899999 1.5599999
-5.0900002 -7.3899999 1.66
-5.0900002 -7.3899999 1.76
-5.0900002 -7.3899999 1.86
-5.0900002 -7.3899999 1.96
-5.0900002 -7.3899999 2.0599999
-5.0900002 -7.3899999 2.1600001
-5.0900002 -7.3899999 2.26
-5.0900002 -7.3899999 2.3599999
-5.0900002 -7.3899999 2.46
-5.0900002 -7.3899999 2.5599999
-5.0900002 -7.3899999 2.6600001
-5.0900002 -7.3899999 2.76
-5.0900002 -7.3899999 2.8599999
-5.0900002 -7.29 -2.9400001
-5.0900002 -7.29 -2.8399999
-5.0900002 -7.29 -2.74
-5.0900002 -7.29 -2.6400001
-5.0900002 -7.29 -2.54
-5.0900002 -7.29 -2.4400001
-5.0900002 -7.29 -2.3399999
-5.0900002 -7.29 -2.24
-5.0900002 -7.29 -2.1400001
-5.0900002 -7.29 -2.04
-5.0900002 -7.29 -1.9400001
-5.0900002 -7.29 -1.84
-5.0900002 -7.29 -1.74
-5.0900002 -7.29 -1.64
-5.0900002 -7.29 -1.54
-5.0900002 -7.29 -1.4400001
-5.0900002 -7.29 -1.34
-5.0900002 -7.29 -1.24
-5.0900002 -7.29 -1.14
-5.0900002 -7.29 -1.04
-5.0900002 -7.29 -0.94
-5.0900002 -7.29 -0.83999997
-5.0900002 -7.29 -0.74000001
-5.0900002 -7.29 -0.63999999
-5.0900002 -7.29 -0.54000002
-5.0900002 -7.29 -0.44
-5.0900002 -7.29 -0.34
-5.0900002 -7.29 -0.23999999
-5.0900002 -7.29 -0.14
-5.0900002 -7.29 -0.039999999
-5.0900002 -7.29 0.059999999
-5.0900002 -7.29 0.16
-5.0900002 -7.29 0.25999999
-5.0900002 -7.29 0.36000001
-5.0900002 -7.29 0.46000001
-5.0900002 -7.29 0.56
-5.0900002 -7.29 0.66000003
-5.0900002 -7.29 0.75999999
-5.0900002 -7.29 0.86000001
-5.0900002 -7.29 0.95999998
-5.0900002 -7.1900001 -2.9400001
-5.0900002 -7.1900001 -2.8399999
-5.0900002 -7.1900001 -2.74
-5.0900002 -7.1900001 -2.6400001
-5.0900002 -7.1900001 -2.54
-5.0900002 -7.1900001 -2.4400001
-5.0900002 -7.1900001 -2.3399999
-5.0900002 -7.1900001 -2.24
-5.0900002 -7.1900001 -2.1400001
-5.0900002 -7.1900001 -2.04
-5.0900002 -7.1900001 -1.9400001
-5.0900002 -7.1900001 -1.84
-5.0900002 -7.1900001 -1.74
-5.0900002 -7.1900001 -1.64
-5.0900002 -7.1900001 -1.54
-5.0900002 -7.1900001 -1.4400001
-5.0900002 -7.1900001 -1.34
-5.0900002 -7.1900001 -1.24
-5.0900002 -7.1900001 -1.14
-5.0900002 -7.1900001 -1.04
-5.0900002 -7.1900001 -0.94
-5.0900002 -7.1900001 -0.83999997
-5.0900002 -7.1900001 -0.74000001
-5.0900002 -7.1900001 -0.63999999
-5.0900002 -7.1900001 -0.54000002
-5.0900002 -7.1900001 -0.44
-5.0900002 -7.1900001 -0.34
-5.0900002 -7.1900001 -0.23999999
-5.0900002 -7.1900001 -0.14
-5.0900002 -7.1900001 -0.039999999
-5.0900002 -7.1900001 0.059999999
-5.0900002 -7.1900001 0.16
-5.0900002 -7.1900001 0.25999999
-5.0900002 -7.1900001 0.36000001
-5.0900002 -7.1900001 0.46000001
-5.0900002 -7.1900001 0.56
-5.0900002 -7.1900001 0.66000003
-5.0900002 -7.1900001 0.75999999
-5.0900002 -7.1900001 0.86000001
-5.0900002 -7.1900001 0.95999998
-5.0900002 -7.1900001 1.0599999
-5.0900002 -7.1900001 1.16
-5.0900002 -7.1900001 1.26
-5.0900002 -7.1900001 1.36
-5.0900002 -7.1900001 1.46
-5.0900002 -7.0900002 -2.9400001
-5.0900002 -7.0900002 -2.8399999
-5.0900002 -7.0900002 -2.74
-5.0900002 -7.0900002 -2.6400001
-5.0900002 -7.0900002 -2.54
-5.0900002 -7.0900002 -2.4400001
-5.0900002 -7.0900002 -2.3399999
-5.0900002 -7.0900002 -2.24
-5.0900002 -7.0900002 -2.1400001
-5.0900002 -7.0900002 -2.04
-5.0900002 -7.0900002 -1.9400001
-5.0900002 -7.0900002 -1.84
-5.0900002 -7.0900002 -1.74
-5.0900002 -7.0900002 -1.64
-5.0900002 -7.0900002 -1.54
-5.0900002 -7.0900002 -1.4400001
-5.0900002 -7.0900002 -1.34
-5.0900002 -7.0900002 -1.24
-5.0900002 -7.0900002 -1.14
-5.0900002 -7.0900002 -1.04
-5.0900002 -7.0900002 -0.94
-5.0900002 -7.0900002 -0.83999997
-5.0900002 -7.0900002 -0.74000001
-5.0900002 -7.0900002 -0.63999999
-5.0900002 -7.0900002 -0.54000002
-5.0900002 -7.0900002 -0.44
-5.0900002 -7.0900002 -0.34
-5.0900002 -7.0900002 -0.23999999
-5.0900002 -7.0900002 -0.14
-5.0900002 -7.0900002 -0.039999999
-5.0900002 -7.0900002 0.059999999
-5.0900002 -7.0900002 0.16
-5.0900002 -7.0900002 0.25999999
-5.0900002 -7.0900002 0.36000001
-5.0900002 -7.0900002 0.46000001
-5.0900002 -7.0900002 0.56
-5.0900002 -7.0900002 0.66000003
-5.0900002 -7.0900002 0.75999999
-5.0900002 -7.0900002 0.86000001
-5.0900002 -7.0900002 0.95999998
-5.0900002 -7.0900002 1.0599999
-5.0900002 -7.0900002 1.16
-5.0900002 -7.0900002 1.26
-5.0900002 -6.9899998 -2.9400001
-5.0900002 -6.9899998 -2.8399999
-5.0900002 -6.9899998 -2.74
-5.0900002 -6.9899998 -2.6400001
-5.0900002 -6.9899998 -2.54
-5.0900002 -6.9899998 -2.4400001
-5.0900002 -6.9899998 -2.3399999
-5.0900002 -6.9899998 -2.24
-5.0900002 -6.9899998 -2.1400001
-5.0900002 -6.9899998 -2.04
-5.0900002 -6.9899998 -1.9400001
-5.0900002 -6.9899998 -1.84
-5.0900002 -6.9899998 -1.74
-5.0900002 -6.9899998 -1.64
-5.0900002 -6.9899998 -1.54
-5.0900002 -6.9899998 -1.4400001
-5.0900002 -6.9899998 -1.34
-5.0900002 -6.9899998 -1.24
-5.0900002 -6.9899998 -1.14
-5.0900002 -6.9899998 -1.04
-5.0900002 -6.9899998 -0.94
-5.0900002 -6.9899998 -0.83999997
-5.0900002 -6.9899998 -0.74000001
-5.0900002 -6.9899998 -0.63999999
-5.0900002 -6.9899998 -0.54000002
-5.0900002 -6.9899998 -0.44
-5.0900002 -6.9899998 -0.34
-5.0900002 -6.9899998 -0.23999999
-5.0900002 -6.9899998 -0.14
-5.0900002 -6.9899998 -0.039999999
-5.0900002 -6.9899998 0.059999999
-5.0900002 -6.9899998 0.16
-5.0900002 -6.9899998 0.25999999
-5.0900002 -6.9899998 0.36000001
-5.0900002 -6.9899998 0.46000001
-5.0900002 -6.9899998 0.56
-5.0900002 -6.9899998 0.66000003
-5.0900002 -6.9899998 0.75999999
-5.0900002 -6.9899998 0.86000001
-5.0900002 -6.9899998 0.95999998
-5.0900002 -6.9899998 1.0599999
-5.0900002 -6.9899998 1.16
-5.0900002 -6.9899998 1.26
-5.0900002 -6.9899998 1.36
-5.0900002 -6.9899998 1.46
-5.0900002 -6.9899998 1.5599999
-5.0900002 -6.9899998 1.66
-5.0900002 -6.9899998 1.76
-5.0900002 -6.9899998 1.86
-5.0900002 -6.9899998 1.96
-5.0900002 -6.9899998 2.0599999
-5.0900002 -6.9899998 2.1600001
-5.0900002 -6.9899998 2.26
-5.0900002 -6.9899998 2.3599999
-5.0900002 -6.8899999 -2.9400001
-5.0900002 -6.8899999 -2.8399999
-5.0900002 -6.8899999 -2.74
-5.0900002 -6.8899999 -2.6400001
-5.0900002 -6.8899999 -2.54
-5.0900002 -6.8899999 -2.4400001
-5.0900002 -6.8899999 -2.3399999
-5.0900002 -6.8899999 -2.24
-5.0900002 -6.8899999 -2.1400001
-5.0900002 -6.8899999 -2.04
-5.0900002 -6.8899999 -1.9400001
-5.0900002 -6.8899999 -1.84
-5.0900002 -6.8899999 -1.74
-5.0900002 -6.8899999 -1.64
-5.0900002 -6.8899999 -1.54
-5.0900002 -6.8899999 -1.4400001
-5.0900002 -6.8899999 -1.34
-5.0900002 -6.8899999 -1.24
-5.0900002 -6.8899999 -1.14
-5.0900002 -6.8899999 -1.04
-5.0900002 -6.8899999 -0.94
-5.0900002 -6.8899999 -0.83999997
-5.0900002 -6.8899999 -0.74000001
-5.0900002 -6.8899999 -0.63999999
-5.0900002 -6.8899999 -0.54000002
-5.0900002 -6.8899999 -0.44
-5.0900002 -6.8899999 -0.34
-5.0900002 -6.8899999 -0.23999999
-5.0900002 -6.8899999 -0.14
